# .PCD v0.7 - Point Cloud Data file format
VERSION 0.7
FIELDS x y z
SIZE 4 4 4
TYPE F F F
COUNT 1 1 1
WIDTH 470
HEIGHT 1
VIEWPOINT 0 0 0 1 0 0 0
POINTS 470
DATA ascii
-0.40638605 -0.14340816 1.1257694
-0.3991282 -0.1418172 1.126
-0.40429297 -0.13509247 1.1248
-0.39613464 -0.13515592 1.1253181
-0.40301943 -0.1290839 1.1240001
-0.39541277 -0.12917578 1.1248001
-0.41069785 -0.17126268 1.138
-0.40737239 -0.17126268 1.138
-0.41152921 -0.16411287 1.1380001
-0.40604216 -0.16461168 1.1380002
-0.38608927 -0.16062111 1.138
-0.4113149 -0.15503958 1.1364616
-0.40374866 -0.1540947 1.1360954
-0.39739594 -0.15130974 1.138
-0.41111284 -0.14760436 1.13
-0.40462634 -0.14698748 1.1303333
-0.39486718 -0.14439027 1.1338261
-0.3880614 -0.14196634 1.1356001
-0.39192784 -0.13449103 1.1318182
-0.38577187 -0.1337411 1.1354403
-0.37810808 -0.13069171 1.138
-0.39107752 -0.12869641 1.138
-0.3834289 -0.12836386 1.138
-0.37810808 -0.12869641 1.138
-0.40124503 -0.16523851 1.1423334
-0.39664209 -0.16405296 1.1447649
-0.40111095 -0.15904398 1.141
-0.39406168 -0.15624368 1.1424549
-0.38424882 -0.15495984 1.1435716
-0.37813663 -0.15471976 1.149
-0.39210844 -0.14904122 1.141
-0.38444102 -0.14561644 1.143286
-0.37573007 -0.14275844 1.1476668
-0.36766085 -0.1410206 1.149
-0.38160554 -0.13753803 1.141
-0.37413871 -0.1357352 1.1414802
-0.36721656 -0.13463838 1.1455334
-0.38459122 -0.1255939 1.1441112
-0.37422097 -0.12517038 1.1432002
-0.36504224 -0.12549755 1.1445558
-0.3589766 -0.12267372 1.1470001
-0.37169001 -0.11986751 1.149
-0.36359337 -0.11835197 1.1465
-0.35835063 -0.11744732 1.145
-0.37407634 -0.15343046 1.153421
-0.36575776 -0.15153691 1.1570001
-0.38208115 -0.1475763 1.153
-0.37450016 -0.1470709 1.153
-0.36483839 -0.1451645 1.1542726
-0.3625547 -0.13446611 1.1532667
-0.35534427 -0.13084513 1.1570001
-0.38442096 -0.1227307 1.1570001
-0.37746313 -0.12109777 1.1543332
-0.36046606 -0.1275813 1.155
-0.35539857 -0.12440245 1.1561302
-0.3496322 -0.12363893 1.156
-0.37224934 -0.11867348 1.1570001
-0.36590838 -0.11826321 1.153
-0.35577151 -0.11757784 1.1562001
-0.34993464 -0.11765918 1.1570001
-0.36120567 -0.15149531 1.1650001
-0.35712039 -0.15081443 1.1650001
-0.36127248 -0.14605454 1.1627144
-0.35614663 -0.14436784 1.1640592
-0.3610566 -0.13722403 1.1623335
-0.3557384 -0.13515493 1.1642942
-0.34946474 -0.1311774 1.169
-0.38401857 -0.12153669 1.165
-0.35072803 -0.12948453 1.1630001
-0.34524667 -0.12462065 1.1651669
-0.33839664 -0.12359369 1.169
-0.37760749 -0.11908377 1.161
-0.3545315 -0.11409631 1.1632222
-0.34441164 -0.11534278 1.1629312
-0.3355329 -0.11505459 1.1676002
-0.34434065 -0.1096561 1.169
-0.33790329 -0.10853747 1.1680001
-0.26132995 -0.014347527 1.169
-0.25788927 -0.014597158 1.1684999
-0.25814942 -0.0065831402 1.1678572
-0.35352141 -0.14526239 1.175154
-0.3485544 -0.14259982 1.177
-0.35297427 -0.13728206 1.1730002
-0.34537202 -0.1345966 1.1750871
-0.3386488 -0.1326942 1.177
-0.34037724 -0.12854125 1.1730001
-0.33390054 -0.12506272 1.1743335
-0.32765803 -0.12296414 1.1758573
-0.35598364 -0.11247019 1.177
-0.33196357 -0.11395767 1.1730002
-0.32466975 -0.1140453 1.1747394
-0.31765828 -0.1124702 1.177
-0.34321237 -0.10753223 1.1756667
-0.33402702 -0.10493126 1.174778
-0.32433558 -0.10416348 1.1745002
-0.31651589 -0.10408652 1.177
-0.32320464 -0.098455362 1.1760001
-0.31651589 -0.096218765 1.177
-0.26346231 -0.082890883 1.177
-0.2641502 -0.061910197 1.177
-0.26376325 -0.054429386 1.177
-0.25781175 -0.052623667 1.177
-0.26410583 -0.044362143 1.1768
-0.25619131 -0.044017423 1.1767778
-0.27137303 -0.033018775 1.177
-0.26482469 -0.035036512 1.1754
-0.25513542 -0.034979001 1.1735002
-0.26446387 -0.025725788 1.1738002
-0.25471392 -0.025629431 1.1737275
-0.24988419 -0.027764909 1.1730001
-0.25344655 -0.015661927 1.1744738
-0.35078266 -0.14786299 1.1850001
-0.34419081 -0.14481172 1.1857998
-0.3364206 -0.14202109 1.189
-0.34269866 -0.13908112 1.1810001
-0.33411047 -0.1353105 1.1835999
-0.32442778 -0.13416603 1.1886663
-0.31583408 -0.13081576 1.189
-0.33027452 -0.12941791 1.1810001
-0.32412544 -0.1254299 1.1858693
-0.31564453 -0.12574613 1.189
-0.32230914 -0.1190509 1.1860001
-0.3146722 -0.11557509 1.1865999
-0.309163 -0.11403382 1.189
-0.33617625 -0.10123191 1.1823335
-0.31224087 -0.10497357 1.1838572
-0.30546224 -0.10449722 1.1869045
-0.29631358 -0.10300379 1.189
-0.32435748 -0.095227696 1.1840001
-0.31372362 -0.093848333 1.1836667
-0.30505231 -0.094749182 1.1866921
-0.29494718 -0.094841689 1.1888397
-0.28495425 -0.094072692 1.1889999
-0.27539065 -0.092561275 1.189
-0.26892802 -0.091727391 1.189
-0.30499357 -0.087766431 1.189
-0.29707167 -0.087557949 1.189
-0.28039393 -0.088600315 1.189
-0.27513644 -0.084416702 1.1887997
-0.26881224 -0.084199257 1.189
-0.28039393 -0.074007325 1.189
-0.27495074 -0.074988313 1.188
-0.26536003 -0.074699797 1.1860527
-0.28074139 -0.066363372 1.189
-0.27439791 -0.065480694 1.1855999
-0.26459098 -0.066100225 1.1835999
-0.25987118 -0.063155942 1.1810001
-0.27382031 -0.055445921 1.1854706
-0.26660091 -0.055908538 1.1810001
-0.25738633 -0.056529749 1.1810001
-0.25158843 -0.030024957 1.1810001
-0.3535018 -0.15165018 1.1930001
-0.3413626 -0.15128957 1.1956667
-0.33577648 -0.15198798 1.1956667
-0.32527438 -0.15143242 1.1946001
-0.34304315 -0.14955845 1.1930001
-0.33461615 -0.14622749 1.1938571
-0.32590127 -0.14436938 1.1942003
-0.31586036 -0.14166495 1.197
-0.3252635 -0.13909982 1.1930001
-0.3149704 -0.13564982 1.1936318
-0.30956414 -0.13117126 1.197
-0.31233284 -0.12388726 1.193
-0.30789179 -0.12387212 1.1954
-0.30494618 -0.11504192 1.1948826
-0.29802108 -0.11123322 1.197
-0.30225453 -0.10876978 1.193
-0.2943382 -0.1064097 1.193889
-0.28580484 -0.10329125 1.1935713
-0.27508485 -0.10298817 1.1969999
-0.28482345 -0.096568041 1.193
-0.27474028 -0.097426184 1.193
-0.2696881 -0.096542038 1.197
-0.29457724 -0.084472507 1.1935334
-0.28569502 -0.084540628 1.1930003
-0.28606004 -0.075160295 1.1937059
-0.26100209 -0.072328217 1.1956667
-0.26129314 -0.065060943 1.197
-0.26041996 -0.059614211 1.1930001
-0.32701477 -0.15138923 1.202
-0.32320771 -0.14781727 1.203143
-0.31600347 -0.14457618 1.2037778
-0.31211403 -0.13653803 1.2036002
-0.30819625 -0.13243687 1.2053334
-0.30512413 -0.12476077 1.2043334
-0.30158418 -0.11780963 1.202
-0.29474711 -0.11471282 1.2046666
-0.28496671 -0.1144193 1.2080001
-0.27620915 -0.1128625 1.2060002
-0.29188967 -0.10853659 1.202
-0.28404632 -0.10741657 1.2036
-0.27415028 -0.10594355 1.2038462
-0.26960129 -0.105726 1.2060001
-0.26960129 -0.097267918 1.2060001
-0.26431501 -0.083523542 1.2060001
-0.26085448 -0.072872616 1.2046667
-0.29388061 -0.22719638 1.219
-0.28833932 -0.22532947 1.2181667
-0.31241012 -0.14478269 1.2121251
-0.30638558 -0.14198558 1.2177501
-0.31080464 -0.13896044 1.21
-0.30412319 -0.13577166 1.2143077
-0.29577154 -0.13133694 1.2180002
-0.2847665 -0.13342033 1.2175
-0.27652156 -0.13298589 1.2135384
-0.30152294 -0.12596604 1.21
-0.29466695 -0.1256015 1.2125264
-0.28493035 -0.12513177 1.2114116
-0.27474409 -0.12505969 1.211381
-0.29383233 -0.11986663 1.21
-0.2731286 -0.11670725 1.2113498
-0.26926115 -0.1117487 1.2140001
-0.2704955 -0.10077284 1.21
-0.26681262 -0.10447574 1.2125715
-0.2709426 -0.093500003 1.2120001
-0.26510212 -0.094756298 1.2144802
-0.2573947 -0.094293885 1.2182857
-0.24472238 -0.092973128 1.2190001
-0.26385808 -0.085387394 1.2118125
-0.25600758 -0.084742986 1.2167778
-0.29323667 -0.23319551 1.223
-0.35389543 -0.22266369 1.2270001
-0.34887561 -0.22122945 1.2270001
-0.32807934 -0.22158802 1.2270001
-0.30118757 -0.22051235 1.2270001
-0.29416218 -0.22256374 1.2235
-0.29301849 -0.2189586 1.2243334
-0.28888357 -0.21907724 1.2250001
-0.2936579 -0.20652863 1.2270001
-0.2936579 -0.16027483 1.2270001
-0.28566721 -0.16119684 1.2270001
-0.30164859 -0.15351348 1.2270001
-0.29407075 -0.15444921 1.2251334
-0.28577667 -0.15470889 1.2255001
-0.31199953 -0.14688638 1.223
-0.30477175 -0.14648341 1.2248824
-0.29497331 -0.14471298 1.2250866
-0.284686 -0.14512031 1.2246666
-0.27870783 -0.14132364 1.2243334
-0.29484493 -0.13616475 1.2229998
-0.28680369 -0.13777299 1.223
-0.27504593 -0.13548234 1.2246001
-0.27125731 -0.12544312 1.223
-0.26769513 -0.12256034 1.2263335
-0.26557839 -0.11448163 1.2249999
-0.25579435 -0.11380589 1.227
-0.24847977 -0.11079401 1.2270001
-0.2630735 -0.10569664 1.2239999
-0.25504091 -0.10550509 1.2252221
-0.24546385 -0.10432864 1.2255262
-0.237992 -0.10191974 1.2270001
-0.2535179 -0.096397214 1.2229999
-0.24588984 -0.095159128 1.2233634
-0.23694132 -0.094747745 1.226143
-0.2391573 -0.088563502 1.2270001
-0.36082548 -0.23079827 1.2360001
-0.36190903 -0.22321334 1.2360001
-0.3552531 -0.22507276 1.2323335
-0.34509456 -0.22461209 1.2340002
-0.33590361 -0.22321336 1.2360001
-0.35350403 -0.21821687 1.233143
-0.3447786 -0.2161762 1.2348001
-0.33495894 -0.21519586 1.2351305
-0.32705685 -0.21551038 1.2353334
-0.30122969 -0.21887912 1.2360001
-0.29651111 -0.21512909 1.2344002
-0.34132141 -0.20912708 1.2360001
-0.33361375 -0.20729114 1.2351112
-0.32542917 -0.20522627 1.2360001
-0.31856662 -0.20262572 1.2360001
-0.29557368 -0.20390242 1.2350001
-0.29581189 -0.19829148 1.2360001
-0.30014613 -0.17228603 1.2360001
-0.29496327 -0.17408988 1.2354667
-0.28822696 -0.17228603 1.2360001
-0.30014613 -0.16578467 1.2360001
-0.29407859 -0.16505758 1.2324708
-0.28597414 -0.16644822 1.2320002
-0.29917479 -0.15876783 1.2320001
-0.28164354 -0.15497854 1.2328001
-0.27973381 -0.15012741 1.2320001
-0.27887905 -0.14484374 1.233
-0.27420613 -0.13566124 1.2346668
-0.26619458 -0.13111076 1.2360001
-0.25788727 -0.13111076 1.2360001
-0.2710934 -0.12852634 1.2320001
-0.26442042 -0.12592372 1.2342501
-0.25493178 -0.12533651 1.2343531
-0.24691667 -0.12201506 1.2353334
-0.262813 -0.11880586 1.2320002
-0.25327253 -0.11718579 1.2320002
-0.24565355 -0.11510105 1.2328002
-0.23683588 -0.11314173 1.2350001
-0.24157192 -0.10836535 1.2320001
-0.2339665 -0.10534708 1.2334739
-0.22662261 -0.10290196 1.2355556
-0.23213822 -0.095231719 1.2328891
-0.22766215 -0.097775213 1.2346667
-0.36345285 -0.23029594 1.245
-0.35432529 -0.23270737 1.2423333
-0.34580207 -0.23271817 1.2443334
-0.33944094 -0.23029594 1.245
-0.36010924 -0.22955604 1.2410001
-0.34161419 -0.22955604 1.2410001
-0.33617449 -0.22738016 1.2410001
-0.32366315 -0.22139646 1.2410001
-0.314821 -0.22113724 1.2426001
-0.30778891 -0.22156435 1.245
-0.3216686 -0.2154128 1.2410001
-0.3144156 -0.21541277 1.2409998
-0.30574146 -0.21523142 1.2447649
-0.29165676 -0.2139917 1.241889
-0.28892449 -0.21332777 1.2436666
-0.33562657 -0.20540518 1.243
-0.32398951 -0.20431575 1.2410001
-0.3141318 -0.20581049 1.2409997
-0.30489707 -0.20532227 1.2421111
-0.2912589 -0.20415506 1.2420001
-0.28923425 -0.2051926 1.245
-0.33070934 -0.19973534 1.245
-0.32490611 -0.19879381 1.2436666
-0.31454554 -0.19788425 1.2436666
-0.3050732 -0.19536437 1.2435262
-0.29484868 -0.19406107 1.2419524
-0.28923425 -0.19864389 1.245
-0.30315027 -0.18472791 1.245
-0.29502025 -0.18507066 1.2418
-0.28923425 -0.18227215 1.245
-0.3037869 -0.17426819 1.245
-0.29410735 -0.17951065 1.2410001
-0.28767818 -0.17653085 1.243
-0.28268555 -0.16480894 1.245
-0.28050265 -0.15826026 1.245
-0.27851349 -0.1534 1.2410001
-0.2747629 -0.14405277 1.2425001
-0.25321639 -0.14079705 1.245
-0.24545485 -0.14257453 1.2443846
-0.23684464 -0.14261614 1.245
-0.26493829 -0.13628748 1.2436665
-0.25473681 -0.13562371 1.2432858
-0.24517858 -0.13512309 1.2429999
-0.23757227 -0.13497597 1.245
-0.25131491 -0.12946525 1.2410001
-0.24349213 -0.12664706 1.2418
-0.23530121 -0.12456765 1.2435262
-0.2261363 -0.12202988 1.2444286
-0.24043548 -0.11858582 1.2410001
-0.23390782 -0.11703163 1.2410001
-0.2256726 -0.11556485 1.2436002
-0.21719854 -0.11241935 1.245
-0.22357233 -0.10752507 1.2410001
-0.21466601 -0.10461158 1.2430001
-0.20846695 -0.1047792 1.245
-0.21660095 -0.098487943 1.2436668
-0.35466647 -0.23717558 1.2525001
-0.34957084 -0.23560417 1.25
-0.3386125 -0.23122083 1.25
-0.29027924 -0.21191487 1.2590001
-0.28628665 -0.20415892 1.2570001
-0.27813828 -0.20308508 1.2590001
-0.29039583 -0.1939625 1.25
-0.2856214 -0.1957169 1.2565714
-0.27813828 -0.19867021 1.2590001
-0.29039583 -0.18848333 1.25
-0.28804013 -0.1856209 1.252875
-0.2860125 -0.17204583 1.25
-0.25591728 -0.14416137 1.252875
-0.24314788 -0.14632882 1.2550001
-0.23725529 -0.1446344 1.2517999
-0.23365445 -0.13495681 1.2530001
-0.22548483 -0.13312259 1.2564286
-0.21603926 -0.13262582 1.2586
-0.23231667 -0.1282125 1.25
-0.22405376 -0.12613009 1.2510713
-0.21430013 -0.12528951 1.2536
-0.20560789 -0.12377469 1.2589999
-0.2202625 -0.11944583 1.25
-0.21374334 -0.11655544 1.2503334
-0.20570785 -0.11461232 1.2541907
-0.2047736 -0.10533911 1.2533126
-0.1990381 -0.10779697 1.2590001
-0.20930417 -0.099720836 1.25
-0.29124272 -0.2167646 1.268
-0.28475979 -0.214331 1.2658666
-0.27664503 -0.21257706 1.2673334
-0.28320038 -0.20848234 1.2640001
-0.2743859 -0.20492412 1.26525
-0.28286645 -0.1930116 1.2653333
-0.27688569 -0.19695053 1.2664001
-0.23232929 -0.14179558 1.2656
-0.22436967 -0.14106356 1.267
-0.23159429 -0.13851333 1.2640001
-0.22494563 -0.13851333 1.2640001
-0.21428713 -0.13731511 1.2651999
-0.20632146 -0.13410734 1.2658461
-0.19897878 -0.13005877 1.268
-0.20292456 -0.12678236 1.2648889
-0.19485168 -0.12386723 1.2675292
-0.18526889 -0.12190694 1.268
-0.20056731 -0.1152431 1.2640001
-0.19447778 -0.11553066 1.2644445
-0.18515882 -0.11456798 1.2676189
-0.17896974 -0.11783101 1.268
-0.19449727 -0.10715423 1.2657143
-0.18867445 -0.10876453 1.266
-0.29241917 -0.22071485 1.2780001
-0.28346315 -0.21873534 1.273
-0.27356648 -0.21497341 1.2771666
-0.26777083 -0.21175182 1.2780001
-0.27116507 -0.20364845 1.275
-0.26779926 -0.20666283 1.2757777
-0.21555658 -0.1418429 1.2739999
-0.20502953 -0.14139196 1.2780001
-0.1960665 -0.14004751 1.2780001
-0.18934421 -0.14004751 1.2780001
-0.20317738 -0.13710278 1.2744285
-0.19505617 -0.13409784 1.2746668
-0.18556322 -0.13348664 1.2766666
-0.17634781 -0.13198075 1.2780001
-0.19306743 -0.12833962 1.273
-0.18440652 -0.12676218 1.2734544
-0.1758358 -0.12479381 1.275647
-0.16917738 -0.12212142 1.2780001
-0.18190746 -0.11048367 1.273
-0.1759775 -0.11576346 1.2747648
-0.28478867 -0.22265263 1.2840002
-0.2755118 -0.2224419 1.2880001
-0.2650747 -0.2231227 1.2875835
-0.25857458 -0.22357103 1.2880001
-0.27256763 -0.21857901 1.2830001
-0.26516297 -0.21525159 1.2830002
-0.25744289 -0.21464612 1.2847859
-0.26488656 -0.20509925 1.2849231
-0.25857458 -0.20776299 1.2880001
-0.19552851 -0.14444135 1.2855
-0.18472692 -0.14192785 1.284875
-0.17460711 -0.14258042 1.2880001
-0.16598457 -0.14114334 1.2880001
-0.18288651 -0.13744608 1.2830001
-0.17444937 -0.13637365 1.2838334
-0.16653897 -0.13499416 1.2853335
-0.17208879 -0.12822303 1.2830001
-0.16574615 -0.12479747 1.2845912
-0.15571962 -0.12595119 1.2880001
-0.14565992 -0.12759358 1.2880001
-0.16646436 -0.11706823 1.2865001
-0.26416355 -0.22731726 1.2932501
-0.25704128 -0.22299814 1.2945001
-0.25480518 -0.21463181 1.2934285
-0.16032217 -0.15236291 1.2970001
-0.15691106 -0.15236291 1.2970001
-0.18490829 -0.14633845 1.294
-0.17465656 -0.14743488 1.2936667
-0.1642874 -0.14600638 1.2935625
-0.15563342 -0.14445212 1.2958462
-0.16135171 -0.13583413 1.293875
-0.1547868 -0.13500537 1.2950954
-0.14753205 -0.13050717 1.2945001
-0.16196942 -0.12798983 1.2920001
-0.15426739 -0.12323268 1.2919999
-0.14800529 -0.12491331 1.2953334
-0.15632106 -0.11830704 1.2945
-0.26138517 -0.22942542 1.302
-0.17317908 -0.15296139 1.3053334
-0.16488716 -0.15422419 1.3031112
-0.15926667 -0.15697506 1.307
-0.15276122 -0.14590099 1.3036667
-0.15010023 -0.13864221 1.307
-0.14852595 -0.13481796 1.3032501
-0.1633265 -0.15987594 1.312
